5247.047 4413.580 124.194
5247.024 4413.644 124.040
5247.119 4413.361 124.014
5247.283 4412.886 124.284
5247.060 4413.521 123.688
5247.138 4413.286 123.595
5247.246 4412.970 123.681
5246.901 4414.071 124.454
5246.844 4414.226 124.163
5247.132 4413.375 124.138
5247.106 4413.444 123.980
5247.222 4413.085 123.603
5246.885 4414.164 124.197
5247.130 4413.437 124.068
5247.286 4412.987 124.244
5247.117 4413.465 123.793
5246.875 4414.239 124.299
5246.947 4414.031 124.302
5247.184 4413.332 124.218
5247.227 4413.180 123.552
5246.863 4414.313 124.185
5246.911 4414.169 124.109
5247.117 4413.571 124.156
5247.366 4412.855 124.366
5247.300 4413.037 124.093
5247.153 4413.448 123.723
5247.209 4413.286 123.773
5246.885 4414.310 124.371
5246.917 4414.216 124.378
5247.154 4413.510 123.979
5247.196 4413.390 123.998
5247.356 4412.940 124.329
5247.136 4413.550 123.673
5247.175 4413.434 123.639
5247.216 4413.314 123.631
5247.246 4413.229 123.621
5246.963 4414.127 124.421
5247.227 4413.354 124.146
5247.359 4412.977 124.211
5247.419 4412.806 124.292
5247.157 4413.532 123.579
5246.958 4414.178 124.279
5246.941 4414.223 124.214
5246.919 4414.343 124.265
5247.316 4413.213 124.427
5247.262 4413.364 124.278
5247.354 4413.106 124.382
5247.298 4413.257 124.234
5247.340 4413.139 124.250
5247.353 4413.099 124.178
5247.194 4413.533 123.736
5247.271 4413.313 123.707
5246.925 4414.377 124.400
5246.965 4414.259 124.327
5246.931 4414.344 124.074
5247.250 4413.441 124.227
5247.231 4413.493 124.159
5247.344 4413.170 124.135
5247.432 4412.925 124.249
5247.435 4412.912 124.129
5247.264 4413.375 123.548
5247.306 4413.255 123.563
5247.417 4412.944 123.670
5246.934 4414.377 124.176
5247.224 4413.548 123.992
5247.400 4413.058 124.255
5247.014 4414.216 124.426
5246.993 4414.264 124.153
5247.337 4413.305 124.426
5247.384 4413.176 124.480
5247.342 4413.288 124.335
5247.481 4412.896 124.387
5247.445 4412.990 124.181
5246.968 4414.378 124.318
5247.032 4414.197 124.250
5247.315 4413.397 124.206
5247.376 4413.227 124.240
5247.467 4412.977 124.335
5247.310 4413.393 123.703
5247.351 4413.274 123.643
5247.324 4413.430 124.343
5247.394 4413.236 124.396
5247.438 4413.103 124.189
5247.299 4413.468 123.626
5247.343 4413.344 123.597
5247.055 4414.234 124.332
5247.183 4413.929 124.594
5247.035 4414.325 124.216
5247.009 4414.393 124.105
5247.420 4413.262 124.319
5247.458 4413.157 124.325
5247.419 4413.257 124.167
5247.446 4413.180 124.125
5247.506 4413.012 124.100
5247.016 4414.418 124.265
5247.117 4414.146 124.433
5247.148 4414.057 124.408
5247.232 4413.832 124.580
5247.413 4413.317 124.228
5247.495 4413.092 124.277
5247.512 4413.044 124.211
5247.547 4412.944 124.159
5247.055 4414.364 124.345
5247.205 4413.957 124.502
5247.393 4413.431 124.271
5247.225 4413.871 123.711
5247.486 4413.172 124.194
5247.331 4413.580 123.720
5247.407 4413.373 123.757
5247.370 4413.467 123.585
5247.115 4414.234 124.270
5247.073 4414.342 124.099
5247.068 4414.340 123.754
5247.445 4413.333 124.365
5247.335 4413.619 124.003
5247.392 4413.521 124.190
5247.500 4413.231 124.350
5247.227 4413.950 123.666
5247.450 4413.357 124.117
5247.488 4413.254 124.097
5247.400 4413.481 123.791
5247.615 4412.908 124.107
5247.154 4414.226 124.391
5247.066 4414.452 124.087
5247.360 4413.661 124.234
5247.385 4413.588 124.140
5247.467 4413.373 124.265
5247.451 4413.412 124.181
5247.429 4413.468 124.109
5247.546 4413.152 124.129
5247.585 4413.046 124.135
5247.130 4414.328 124.317
5247.230 4414.064 124.449
5247.122 4414.346 124.173
5247.194 4414.156 124.290
5247.508 4413.304 124.208
5247.404 4413.567 123.794
5247.086 4414.487 124.308
5247.144 4414.309 123.739
5247.289 4413.919 123.718
5247.567 4413.191 124.252
5247.599 4413.103 124.219
5247.290 4413.908 123.532
5247.644 4412.980 124.132
5247.438 4413.515 123.618
5247.123 4414.435 124.359
5247.095 4414.501 124.172
5247.421 4413.622 124.038
5247.317 4413.892 123.794
5247.311 4413.901 123.614
5247.569 4413.227 124.073
5247.671 4412.954 124.052
5247.147 4414.411 124.244
5247.395 4413.752 124.332
5247.397 4413.738 124.163
5247.469 4413.541 124.018
5247.534 4413.369 124.054
5247.425 4413.647 123.733
5247.656 4413.049 124.178
5247.635 4413.104 124.109
5247.213 4414.278 124.345
5247.328 4413.982 124.584
5247.133 4414.479 124.038
5247.177 4414.351 123.803
5247.231 4414.207 123.801
5247.618 4413.193 124.174
5247.451 4413.612 123.544
5247.317 4414.058 124.520
5247.454 4413.689 124.396
5247.479 4413.615 124.199
5247.547 4413.428 123.992
5247.284 4414.185 124.522
5247.216 4414.355 124.316
5247.262 4414.237 124.396
5247.401 4413.862 124.208
5247.227 4414.303 123.761
5247.680 4413.130 124.240
5247.604 4413.320 124.038
5247.639 4413.229 124.032
5247.730 4412.992 124.140
5247.250 4414.301 124.242
5247.512 4413.622 124.418
5247.505 4413.615 123.834
5247.498 4413.630 123.697
5247.553 4413.482 123.590
5247.245 4414.369 124.393
5247.289 4414.250 124.320
5247.215 4414.434 124.104
5247.448 4413.833 124.270
5247.475 4413.764 124.304
5247.205 4414.444 123.677
5247.182 4414.500 123.605
5247.604 4413.427 124.325
5247.470 4413.756 123.776
5247.187 4414.558 124.314
5247.202 4414.511 124.153
5247.572 4413.554 124.264
5247.502 4413.725 123.994
5247.701 4413.212 124.125
5247.753 4413.076 124.077
5247.556 4413.572 123.641
5247.211 4414.542 124.543
5247.286 4414.348 124.540
5247.369 4414.133 124.526
5247.407 4414.033 124.511
5247.294 4414.297 123.822
5247.265 4414.371 123.712
5247.418 4413.974 123.796
5247.649 4413.394 124.245
5247.317 4414.310 124.449
5247.448 4413.965 124.238
5247.475 4413.890 124.147
5247.357 4414.181 123.803
5247.507 4413.806 124.091
5247.574 4413.636 124.156
5247.687 4413.352 124.311
5247.626 4413.500 124.164
5247.257 4414.500 124.343
5247.277 4414.420 123.618
5247.425 4414.048 123.855
5247.592 4413.607 123.541
5247.385 4414.215 124.508
5247.240 4414.568 124.062
5247.563 4413.748 124.292
5247.434 4414.067 123.996
5247.259 4414.500 123.582
5247.671 4413.473 124.314
5247.583 4413.690 124.032
5247.794 4413.151 124.105
5247.637 4413.532 123.557
5247.325 4414.415 124.461
5247.413 4414.196 124.583
5247.521 4413.910 124.313
5247.359 4414.301 123.754
5247.426 4414.133 123.821
5247.727 4413.389 124.414
5247.614 4413.658 123.935
5247.688 4413.458 123.617
5247.566 4413.839 124.391
5247.505 4413.982 124.063
5247.615 4413.706 124.167
5247.656 4413.602 124.177
5247.540 4413.884 123.818
5247.755 4413.353 124.224
5247.779 4413.279 123.872
5247.438 4414.186 123.949
5247.686 4413.573 124.286
5247.757 4413.395 124.330
5247.709 4413.510 124.208
5247.821 4413.223 124.077
5247.404 4414.339 124.534
5247.413 4414.315 124.451
5247.471 4414.168 124.506
5247.507 4414.061 124.034
5247.691 4413.612 124.389
5247.610 4413.850 124.306
5247.764 4413.472 124.497
5247.465 4414.198 123.858
5247.886 4413.133 123.606
5247.329 4414.596 124.320
5247.407 4414.405 124.444
5247.480 4414.206 124.058
5247.524 4414.088 123.808
5247.847 4413.298 124.278
5247.322 4414.654 124.247
5247.523 4414.167 124.617
5247.452 4414.336 124.384
5247.370 4414.532 124.157
5247.514 4414.165 123.925
5247.482 4414.306 124.505
5247.591 4414.026 124.286
5247.822 4413.430 123.609
5247.545 4414.161 123.847
5247.879 4413.337 123.811
5247.842 4413.425 123.718
5247.963 4413.124 123.570
5247.523 4414.290 124.582
5247.501 4414.376 124.545
5247.465 4414.458 124.365
5247.669 4413.953 124.221
5247.915 4413.351 124.127
5247.420 4414.604 124.367
5247.491 4414.437 124.471
5247.832 4413.592 124.145
5247.877 4413.469 123.810
5247.548 4414.345 124.430
5247.918 4413.434 124.124
5247.904 4413.451 123.580
5248.042 4413.117 123.581
5247.513 4414.473 124.590
5247.488 4414.522 124.310
5247.623 4414.178 123.881
5247.961 4413.354 123.644
5247.640 4414.199 124.563
5247.588 4414.372 124.543
5247.547 4414.549 123.538
5247.904 4413.717 123.929
5247.662 4414.325 123.887
5247.902 4413.797 123.934
5247.972 4413.697 124.411
5247.947 4413.831 124.318
5248.020 4413.699 124.020
5247.958 4413.877 124.067
5247.939 4413.916 123.884
5248.104 4413.670 124.244
5248.065 4413.791 124.049
5248.191 4413.504 124.053
5248.340 4413.276 123.572
5248.288 4413.477 123.517
5246.421 4414.087 124.371
5246.425 4414.065 124.236
5246.427 4414.222 124.351
5246.450 4414.195 124.150
5246.483 4414.148 124.358
5246.454 4414.221 123.868
5246.484 4414.123 123.927
5246.486 4414.241 124.415
5246.521 4414.172 124.440
5246.514 4414.190 124.269
5246.526 4414.248 124.028
5246.537 4414.202 123.868
5246.518 4414.315 123.982
5246.584 4414.175 124.520
5246.535 4414.326 124.333
5246.493 4414.453 124.193
5246.565 4414.226 124.320
5246.559 4414.306 124.432
5246.439 4414.765 124.989
5246.534 4414.406 123.878
5246.477 4414.695 125.040
5246.429 4414.895 124.925
5246.540 4414.502 124.103
5246.576 4414.379 123.963
5246.630 4414.280 124.522
5246.624 4414.293 124.380
5246.589 4414.392 124.189
5246.648 4414.201 124.080
5246.451 4414.917 125.030
5246.426 4414.987 124.903
5246.570 4414.491 124.006
5246.636 4414.344 124.265
5246.630 4414.425 124.463
5246.655 4414.349 124.481
5246.585 4414.555 124.241
5246.616 4414.459 124.227
5246.437 4415.084 124.802
5246.487 4414.931 124.878
5246.521 4414.880 124.962
5246.598 4414.619 124.449
5246.683 4414.355 124.384
5246.678 4414.360 124.175
5246.651 4414.433 123.986
5246.478 4415.051 124.883
5246.441 4415.224 125.257
5246.436 4415.205 124.601
5246.671 4414.487 124.596
5246.652 4414.541 124.519
5246.669 4414.481 124.368
5246.562 4414.794 124.031
5246.528 4414.998 125.033
5246.537 4414.967 124.929
5246.551 4414.895 124.370
5246.522 4414.971 124.170
5246.647 4414.599 124.316
5246.696 4414.448 124.225
5246.732 4414.341 124.295
5246.525 4415.038 124.818
5246.523 4415.020 124.365
5246.720 4414.429 124.436
5246.542 4415.002 124.262
5246.618 4414.778 124.374
5246.713 4414.472 123.948
5246.537 4415.120 125.348
5246.504 4415.183 124.680
5246.636 4414.785 124.631
5246.684 4414.638 124.511
5246.659 4414.708 124.419
5246.721 4414.521 124.439
5246.560 4415.066 124.894
5246.538 4415.126 124.805
5246.716 4414.570 124.279
5246.766 4414.409 123.996
5246.610 4414.956 124.881
5246.544 4415.121 124.298
5246.752 4414.484 123.863
5246.711 4414.701 124.741
5246.618 4414.960 124.384
5246.661 4414.836 124.478
5246.587 4415.042 124.203
5246.685 4414.759 124.319
5246.784 4414.471 124.382
5246.817 4414.371 124.371
5246.799 4414.419 124.276
5246.749 4414.543 123.768
5246.534 4415.258 124.619
5246.606 4415.053 124.803
5246.720 4414.712 124.638
5246.742 4414.637 124.449
5246.462 4415.546 125.374
5246.591 4415.141 124.877
5246.770 4414.603 124.563
5246.785 4414.552 124.377
5246.633 4415.042 124.352
5246.767 4414.650 124.315
5246.764 4414.651 124.212
5246.577 4415.289 125.289
5246.667 4415.008 124.845
5246.644 4415.046 124.261
5246.704 4414.875 124.374
5246.761 4414.714 124.425
5246.744 4414.756 124.257
5246.705 4414.863 124.108
5246.746 4414.744 124.143
5246.851 4414.443 124.214
5246.434 4415.730 125.080
5246.564 4415.353 125.087
5246.654 4415.082 124.884
5246.631 4415.115 124.176
5246.875 4414.417 124.321
5246.823 4414.548 123.902
5246.805 4414.595 123.813
5246.454 4415.730 125.308
5246.600 4415.303 125.146
5246.757 4414.816 124.417
5246.801 4414.694 124.508
5246.731 4414.881 124.252
5246.826 4414.619 124.449
5246.865 4414.488 124.010
5246.690 4415.066 124.784
5246.653 4415.148 124.312
5246.841 4414.612 124.313
5246.865 4414.544 124.350
5246.815 4414.658 123.726
5246.708 4415.026 124.309
5246.731 4414.951 124.103
5246.778 4414.818 124.128
5246.846 4414.619 123.936
5246.788 4414.875 124.801
5246.770 4414.922 124.700
5246.764 4414.927 124.460
5246.829 4414.731 124.237
5246.881 4414.583 124.222
5246.915 4414.490 124.281
5246.917 4414.478 124.140
5246.770 4414.950 124.554
5246.682 4415.183 124.223
5246.808 4414.840 124.531
5246.734 4415.109 124.904
5246.731 4415.085 124.224
5246.880 4414.666 124.165
5246.876 4414.661 123.871
5246.505 4415.820 125.340
5246.755 4415.082 124.567
5246.732 4415.138 124.407
5246.897 4414.651 123.788
5246.432 4416.047 125.089
5246.713 4415.231 124.434
5246.882 4414.775 124.756
5246.702 4415.252 124.259
5246.716 4415.206 124.104
5246.934 4414.588 123.834
5246.815 4414.991 124.680
5246.800 4415.022 124.414
5246.940 4414.628 124.277
5246.889 4414.761 124.104
5246.974 4414.532 124.212
5246.939 4414.623 124.105
5246.884 4414.845 124.594
5246.843 4414.951 124.413
5246.762 4415.165 124.155
5246.991 4414.538 124.290
5246.986 4414.543 124.133
5246.814 4415.062 124.344
5246.833 4415.065 124.633
5246.893 4414.896 124.512
5246.952 4414.720 124.192
5246.514 4416.002 125.043
5246.757 4415.308 124.443
5246.820 4415.140 124.483
5246.789 4415.219 124.379
5246.749 4415.324 124.249
5246.774 4415.250 124.146
5247.024 4414.614 124.261
5246.752 4415.393 124.356
5246.963 4414.829 124.528
5246.972 4414.788 124.107
5247.039 4414.609 124.146
5246.656 4415.744 125.491
5246.820 4415.254 124.501
5246.932 4414.958 124.563
5247.014 4414.726 124.321
5246.734 4415.518 124.326
5246.917 4415.045 124.730
5246.807 4415.317 124.175
5246.988 4414.840 124.357
5246.975 4414.866 124.156
5247.095 4414.543 124.075
5247.104 4414.563 124.265
5246.841 4415.322 124.538
5246.987 4414.923 124.289
5247.056 4414.734 124.163
5247.077 4414.675 124.091
5246.846 4415.338 124.455
5246.976 4414.984 124.217
5247.104 4414.649 124.252
5247.131 4414.572 124.145
5246.829 4415.419 124.481
5246.805 4415.480 124.393
5247.027 4414.897 124.460
5247.079 4414.752 124.264
5246.912 4415.247 124.508
5247.071 4414.813 124.138
5247.094 4414.748 124.023
5247.017 4415.000 124.307
5247.049 4414.913 124.212
5247.052 4414.901 124.122
5246.824 4415.539 124.311
5246.913 4415.310 124.365
5247.060 4414.928 124.382
5247.073 4414.891 124.290
5247.031 4414.994 124.141
5247.042 4414.960 124.048
5247.128 4414.740 124.102
5246.903 4415.374 124.306
5247.129 4414.786 124.191
5247.179 4414.655 124.161
5247.170 4414.674 124.068
5246.912 4415.395 124.479
5247.012 4415.142 124.581
5247.027 4415.088 124.274
5247.116 4414.903 124.461
5247.066 4415.020 124.221
5247.143 4414.829 124.353
5247.188 4414.711 124.310
5247.009 4415.224 124.485
5247.103 4414.977 124.318
5247.107 4414.958 124.133
5247.138 4414.878 124.108
5247.199 4414.762 124.131
5247.098 4415.065 124.384
5247.145 4414.939 124.251
5247.108 4415.069 124.107
5247.191 4414.862 124.176
5247.129 4415.059 124.308
5247.266 4414.710 124.232
5247.262 4414.715 124.101
5247.198 4414.958 124.140
5247.284 4414.783 124.192
5247.263 4414.875 124.239
5247.262 4414.874 124.139
5247.298 4414.779 124.027
5247.321 4414.768 124.116
5247.387 4414.730 124.306
5247.121 4415.916 125.784
5247.081 4416.040 125.694
5247.083 4416.061 125.598
5247.160 4415.993 125.896
5247.178 4415.976 125.747
5247.234 4415.891 125.861
5247.795 4416.072 125.578
5248.472 4414.991 114.103
5247.934 4414.960 114.155
5247.811 4414.976 114.118
5248.818 4414.809 114.059
5247.159 4414.968 114.088
5247.905 4414.743 114.148
5247.828 4414.753 114.110
5248.552 4414.565 114.157
5248.037 4414.635 114.144
5248.455 4414.530 114.221
5248.441 4414.486 114.080
5248.516 4414.441 114.116
5247.931 4414.521 114.106
5248.325 4414.420 114.091
5247.962 4414.378 114.077
5248.386 4414.268 114.114
5248.293 4414.281 114.075
5248.477 4414.208 114.068
5248.364 4414.188 114.074
5249.072 4414.033 114.046
5248.578 4414.054 114.082
5248.167 4414.115 114.064
5248.094 4414.087 114.113
5249.049 4413.848 114.066
5248.107 4413.993 114.078
5247.620 4413.933 114.103
5247.375 4413.937 114.069
5248.200 4413.711 114.110
5247.574 4413.726 114.066
5247.608 4413.412 114.102
5249.275 4412.833 113.991
5247.423 4413.138 114.091
5246.620 4412.141 114.153
5247.242 4415.944 114.160
5247.372 4415.896 114.879
5247.320 4415.900 114.450
5247.383 4415.852 115.704
5247.387 4415.851 115.575
5247.392 4415.808 115.866
5247.396 4415.807 115.780
5247.433 4415.803 115.651
5247.431 4415.803 115.521
5247.421 4415.804 115.348
5247.424 4415.804 115.263
5247.422 4415.804 115.175
5247.423 4415.804 115.090
5247.424 4415.804 115.004
5247.396 4415.806 114.918
5247.317 4415.814 114.189
5247.412 4415.768 114.810
5247.391 4415.770 114.508
5247.491 4415.712 115.838
5247.511 4415.710 115.752
5247.646 4415.696 115.665
5247.634 4415.697 115.577
5247.545 4415.706 115.492
5247.533 4415.707 115.405
5247.522 4415.708 115.319
5247.560 4415.704 115.232
5247.543 4415.706 115.145
5247.517 4415.708 115.059
5247.502 4415.710 114.974
5247.480 4415.712 114.887
5247.477 4415.712 114.801
5247.443 4415.716 114.715
5247.421 4415.718 114.630
5247.384 4415.722 114.417
5247.348 4415.726 114.202
5246.981 4415.763 114.139
5247.593 4415.655 115.867
5247.605 4415.653 115.042
5247.626 4415.651 114.955
5247.572 4415.657 114.869
5247.537 4415.660 114.785
5247.508 4415.663 114.698
5247.518 4415.662 114.611
5247.505 4415.663 114.526
5247.485 4415.666 114.439
5247.458 4415.668 114.355
5247.456 4415.668 114.269
5247.648 4415.616 114.673
5247.586 4415.622 114.589
5247.579 4415.623 114.503
5247.553 4415.625 114.417
5247.537 4415.627 114.332
5247.528 4415.628 114.246
5247.450 4415.636 114.163
5247.603 4415.577 114.274
5247.818 4415.554 114.174
5247.888 4415.501 114.146
5247.519 4415.503 114.270
5247.506 4415.505 114.183
5247.621 4415.445 114.152
5247.495 4415.411 114.172
5247.670 4415.355 114.131
5247.566 4415.322 114.122
5248.087 4415.178 114.130
5248.353 4415.096 114.098
5247.633 4415.130 114.156
5249.066 4414.971 119.597
5249.120 4414.876 119.615
5249.107 4414.877 119.522
5249.155 4414.778 119.631
5249.338 4414.704 119.713
5249.225 4414.669 119.659
5249.294 4414.622 119.711
5249.360 4414.513 119.699
5249.446 4414.458 119.802
5249.342 4414.423 119.851
5249.424 4414.412 119.720
5249.320 4414.423 119.057
5249.437 4414.279 119.910
5249.063 4414.279 119.825
5249.100 4414.179 119.946
5249.000 4414.109 119.941
5248.218 4414.174 119.953
5248.905 4414.072 119.853
5249.367 4413.489 118.438
5249.352 4413.491 118.345
5249.581 4413.073 117.856
5249.509 4412.797 117.758
5249.076 4412.742 119.269
5249.433 4412.531 119.209
5247.464 4416.064 119.514
5247.317 4415.996 119.539
5247.344 4415.990 118.717
5247.389 4415.901 118.588
5247.420 4415.855 118.815
5247.435 4415.854 118.730
5247.434 4415.853 118.642
5247.450 4415.852 118.557
5247.460 4415.851 118.471
5247.387 4415.852 115.963
5247.186 4415.836 119.043
5247.415 4415.813 118.980
5247.554 4415.798 118.556
5247.562 4415.797 118.470
5247.462 4415.806 118.374
5247.439 4415.809 118.286
5247.420 4415.810 118.199
5247.439 4415.806 117.508
5247.435 4415.806 117.420
5247.420 4415.806 116.728
5247.438 4415.804 116.643
5247.383 4415.809 116.340
5247.410 4415.806 116.126
5247.396 4415.808 116.039
5247.148 4415.803 119.106
5247.881 4415.729 118.562
5247.786 4415.738 118.509
5247.655 4415.750 118.456
5247.452 4415.770 118.093
5247.446 4415.770 118.006
5247.442 4415.770 117.918
5247.428 4415.771 117.831
5247.428 4415.771 117.745
5247.451 4415.769 117.659
5247.465 4415.767 117.574
5247.469 4415.766 117.358
5247.453 4415.767 117.226
5247.434 4415.769 117.054
5247.445 4415.768 116.967
5247.457 4415.766 116.881
5247.463 4415.765 116.796
5247.419 4415.769 116.534
5247.431 4415.768 116.276
5247.447 4415.766 116.190
5247.427 4415.768 115.975
5246.849 4415.787 119.413
5246.953 4415.776 119.339
5247.105 4415.760 119.312
5247.990 4415.668 118.743
5247.887 4415.679 118.645
5247.714 4415.695 118.498
5247.553 4415.711 118.355
5247.514 4415.715 118.266
5247.501 4415.716 118.177
5247.505 4415.715 118.047
5247.522 4415.713 117.962
5247.487 4415.717 117.873
5247.479 4415.717 117.785
5247.526 4415.712 117.702
5247.551 4415.709 117.615
5247.633 4415.701 117.577
5247.574 4415.707 117.399
5247.612 4415.703 117.315
5247.537 4415.710 117.224
5247.565 4415.707 117.139
5247.527 4415.710 117.051
5247.555 4415.708 116.965
5247.557 4415.707 116.879
5247.589 4415.704 116.792
5247.628 4415.699 116.532
5247.516 4415.710 116.488
5247.493 4415.712 116.400
5247.499 4415.712 116.315
5247.547 4415.707 116.227
5247.546 4415.707 116.141
5247.551 4415.706 116.055
5247.507 4415.710 115.968
5246.702 4415.757 119.595
5246.835 4415.744 119.569
5247.117 4415.714 119.559
5247.350 4415.690 119.455
5248.221 4415.601 119.507
5248.067 4415.614 118.868
5247.905 4415.630 118.721
5247.806 4415.640 118.624
5247.663 4415.654 118.438
5247.622 4415.658 118.346
5247.556 4415.665 118.211
5247.563 4415.664 118.125
5247.587 4415.661 118.038
5247.618 4415.657 117.954
5247.550 4415.664 117.863
5247.617 4415.657 117.779
5246.569 4415.739 119.732
5246.654 4415.730 119.658
5248.045 4415.583 119.026
5248.028 4415.585 118.934
5247.985 4415.589 118.842
5247.723 4415.615 118.555
5247.665 4415.620 118.113
5247.738 4415.612 118.074
5246.552 4415.700 119.808
5247.049 4415.647 119.827
5247.252 4415.625 119.547
5248.247 4415.520 119.393
5248.136 4415.531 119.336
5248.095 4415.535 119.243
5248.055 4415.539 119.149
5247.883 4415.556 118.779
5247.802 4415.563 118.685
5247.680 4415.576 118.454
5247.663 4415.578 118.366
5247.657 4415.578 118.277
5247.721 4415.571 118.194
5246.900 4415.619 119.828
5246.958 4415.612 119.749
5247.041 4415.603 119.673
5247.183 4415.588 119.603
5248.317 4415.466 119.422
5248.157 4415.482 119.269
5248.023 4415.496 119.079
5247.939 4415.505 118.981
5247.906 4415.508 118.890
5247.751 4415.523 118.613
5247.718 4415.526 118.521
5247.717 4415.526 118.303
5246.861 4415.588 119.968
5248.262 4415.434 119.342
5248.281 4415.431 119.255
5248.139 4415.446 119.195
5247.855 4415.476 118.813
5247.810 4415.480 118.721
5247.729 4415.488 118.407
5247.796 4415.480 118.325
5246.900 4415.537 119.865
5247.087 4415.516 119.801
5248.376 4415.373 119.420
5248.330 4415.377 119.326
5248.113 4415.400 119.124
5247.939 4415.419 119.062
5247.887 4415.425 118.969
5247.861 4415.427 118.879
5247.793 4415.434 118.652
5247.782 4415.435 118.564
5247.789 4415.434 118.475
5248.558 4415.304 119.453
5248.403 4415.321 119.345
5248.206 4415.342 119.147
5247.851 4415.380 118.802
5247.827 4415.383 118.711
5247.862 4415.378 118.539
5246.918 4415.452 119.892
5247.984 4415.330 119.137
5247.905 4415.338 119.086
5247.868 4415.342 118.993
5247.862 4415.342 118.905
5247.871 4415.340 118.641
5247.951 4415.331 118.603
5248.936 4415.178 119.583
5248.627 4415.212 119.414
5247.896 4415.293 118.803
5248.102 4415.269 118.645
5246.957 4415.360 119.904
5248.867 4415.139 119.552
5248.758 4415.151 119.448
5247.885 4415.250 119.134
5247.825 4415.256 119.040
5247.846 4415.254 118.953
5247.956 4415.241 118.830
5248.993 4415.084 119.587
5248.854 4415.100 119.480
5249.467 4415.032 120.341
5249.479 4414.978 120.422
5249.139 4414.973 121.795
5248.981 4414.992 121.721
5249.028 4414.982 120.982
5248.997 4414.984 120.557
5249.333 4414.905 121.027
5249.502 4414.836 121.020
5248.278 4414.984 120.697
5248.888 4414.909 120.557
5247.987 4415.018 120.385
5249.527 4414.829 120.129
5248.827 4414.873 121.761
5249.607 4414.771 120.996
5249.555 4414.777 120.753
5249.259 4414.812 120.430
5249.267 4414.810 120.244
5248.628 4414.855 121.730
5249.419 4414.756 121.823
5248.208 4414.902 120.743
5248.017 4414.924 120.399
5248.057 4414.919 120.315
5248.544 4414.813 121.270
5249.322 4414.709 120.318
5248.364 4414.785 120.879
5248.027 4414.826 120.377
5248.577 4414.755 120.362
5249.322 4414.659 120.229
5248.648 4414.716 121.801
5249.568 4414.592 120.967
5248.786 4414.690 120.250
5247.974 4414.707 121.568
5247.929 4414.624 121.664
5249.282 4414.437 121.107
5249.498 4414.405 120.432
5247.856 4414.557 122.052
5249.203 4414.264 120.727
5249.550 4414.212 120.164
5248.162 4414.270 120.201
5248.195 4414.264 120.114
5248.580 4414.179 121.591
5248.208 4414.226 120.024
5248.946 4414.118 120.073
5249.123 4414.091 120.048
5248.499 4414.150 123.087
5249.291 4414.015 119.992
5247.001 4414.321 122.718
5249.425 4413.944 120.535
5249.304 4413.922 120.707
5249.514 4413.890 120.595
5249.230 4413.931 120.368
5247.937 4414.100 123.499
5249.538 4413.838 120.757
5246.719 4414.229 121.265
5249.315 4413.823 120.443
5248.942 4413.792 121.098
5246.773 4413.875 120.366
5248.868 4413.529 120.529
5248.938 4413.516 120.121
5249.188 4413.392 120.706
5248.880 4413.398 120.903
5248.974 4413.378 120.217
5248.113 4413.479 120.597
5248.184 4413.466 120.561
5248.315 4413.444 120.533
5248.265 4413.363 120.609
5249.180 4413.155 120.767
5249.415 4413.023 120.243
5247.854 4415.075 118.931
5248.686 4416.057 121.441
5248.419 4416.078 120.985
5248.512 4416.069 120.955
5249.148 4415.965 120.874
5248.037 4416.037 123.852
5247.346 4416.082 121.034
5248.510 4415.977 120.950
5247.398 4415.909 120.730
5246.838 4415.919 120.651
5247.268 4415.877 120.542
5246.611 4415.939 120.017
5247.509 4415.809 120.305
5247.413 4415.702 122.968
5247.366 4415.631 122.886
5247.360 4415.623 121.452
5247.396 4415.618 121.280
5247.430 4415.614 121.196
5247.484 4415.608 121.117
5247.583 4415.558 122.141
5247.474 4415.566 121.493
5247.578 4415.555 121.467
5247.600 4415.551 121.292
5247.490 4415.527 121.379
5249.326 4415.328 121.415
5246.749 4415.600 119.997
5247.429 4415.487 121.567
5247.540 4415.475 121.544
5247.543 4415.474 121.409
5247.550 4415.473 121.321
5249.108 4415.299 120.888
5247.793 4415.440 120.200
5247.729 4415.447 120.148
5247.725 4415.447 120.058
5247.489 4415.433 121.458
5248.909 4415.272 121.056
5249.213 4415.239 121.057
5249.086 4415.252 120.991
5249.104 4415.249 120.715
5247.815 4415.389 120.083
5248.203 4415.316 121.643
5248.853 4415.243 121.619
5247.604 4415.382 121.313
5249.146 4415.206 120.781
5249.175 4415.202 120.692
5247.806 4415.354 120.229
5248.335 4415.256 121.697
5249.018 4415.175 121.072
5248.884 4415.190 120.958
5247.888 4415.300 120.314
5248.870 4415.148 121.675
5249.283 4415.099 121.323
5248.866 4415.145 120.886
5249.136 4415.112 120.647
5249.185 4415.106 120.560
5247.840 4415.260 120.239
5249.080 4415.085 121.829
5248.330 4415.167 120.826
5248.730 4415.120 120.795
5248.357 4415.163 120.649
5248.321 4415.167 120.552
5249.109 4415.075 120.526
5247.878 4415.217 120.311
5247.911 4415.213 120.225
5248.275 4415.123 120.896
5248.877 4415.052 120.941
5248.283 4415.121 120.760
5248.280 4415.070 120.685
5247.938 4415.110 120.365
5247.910 4415.113 120.271
5247.979 4415.065 120.235
5247.890 4415.209 118.891
5246.965 4415.273 119.911
5248.982 4415.033 119.526
5247.863 4415.164 119.183
5247.791 4415.172 119.131
5247.783 4415.172 118.998
5247.773 4415.086 119.232
5250.170 4414.948 119.765
5249.761 4414.942 119.939
5250.234 4414.833 119.820
5250.305 4414.824 119.782
5250.529 4414.794 119.084
5250.169 4414.309 119.326
5250.362 4414.282 119.202
5250.190 4414.071 118.957
5250.310 4414.054 118.920
5250.036 4414.092 118.850
5250.048 4414.038 118.968
5249.626 4414.055 119.923
5250.233 4413.871 118.910
5250.315 4413.660 118.273
5250.332 4413.376 119.277
5250.294 4413.150 119.088
5249.854 4412.594 119.110
5250.402 4415.294 119.766
5250.024 4412.517 118.960
5250.600 4412.306 119.275
5249.995 4412.381 118.861
5249.743 4414.998 119.999
5249.740 4414.896 120.804
5249.800 4414.886 120.150
5249.767 4414.802 120.775
5249.734 4414.569 120.517
5250.138 4414.130 120.430
5249.724 4413.810 120.593
5249.895 4413.783 120.568
5249.867 4413.787 120.470
5250.018 4413.674 120.484
5249.639 4413.316 120.674
5249.608 4416.067 120.723
5249.641 4415.238 120.259
5249.641 4415.147 120.051
5249.667 4415.048 120.110
5248.308 4412.850 113.993
5248.887 4412.359 113.975
5248.473 4412.770 113.989
5249.015 4412.334 113.966
5248.781 4412.584 113.990
5248.890 4412.547 113.974
5249.030 4412.417 113.963
5248.511 4412.933 113.988
5248.734 4412.752 113.983
5248.656 4412.860 113.981
5248.867 4412.664 113.975
5249.063 4412.516 113.969
5248.609 4412.971 113.977
5248.430 4413.174 113.994
5248.790 4412.836 113.977
5249.160 4412.488 113.986
5248.585 4413.062 113.982
5248.864 4412.799 113.982
5248.360 4413.302 114.010
5248.034 4413.649 114.040
5249.097 4412.641 113.982
5248.461 4413.283 113.999
5248.605 4413.146 113.986
5248.767 4412.991 113.976
5248.946 4412.820 113.968
5248.241 4413.557 114.037
5248.716 4413.102 113.978
5248.895 4412.931 113.970
5249.115 4412.720 113.966
5248.574 4413.274 113.994
5249.034 4412.832 113.962
5248.700 4413.181 113.980
5248.849 4413.039 113.969
5248.387 4413.521 114.009
5248.504 4413.408 113.994
5248.655 4413.262 113.983
5248.982 4412.946 113.964
5248.840 4413.121 113.974
5249.070 4412.925 113.969
5248.180 4413.827 114.019
5248.412 4413.601 114.012
5248.993 4413.035 113.965
5248.556 4413.496 113.999
5248.659 4413.395 113.983
5248.893 4413.195 113.976
5248.371 4413.747 114.012
5248.858 4413.269 113.979
5248.985 4413.144 113.967
5248.569 4413.591 114.007
5248.682 4413.479 113.991
5248.456 4413.767 114.003
5248.837 4413.390 113.985
5248.954 4413.274 113.972
5248.672 4413.589 113.998
5248.777 4413.485 113.983
5248.568 4413.763 114.023
5248.765 4413.567 113.989
5248.927 4413.405 113.980
5248.538 4413.858 114.020
5248.667 4413.728 114.005
5248.768 4413.661 113.995
5249.180 4412.598 113.966
5249.257 4412.645 113.936
5249.144 4412.854 113.952
5249.229 4412.771 113.937
5249.318 4412.750 113.924
5249.156 4412.938 113.952
5249.234 4412.899 113.942
5249.130 4413.038 113.959
5249.337 4412.833 113.931
5249.079 4413.150 113.959
5249.213 4413.081 113.950
5249.329 4412.965 113.937
5249.074 4413.258 113.968
5249.168 4413.200 113.953
5249.312 4413.056 113.943
5249.495 4412.872 113.937
5249.046 4413.381 113.970
5249.281 4413.144 113.944
5249.440 4412.984 113.935
5249.165 4413.296 113.954
5249.425 4413.063 113.929
5249.189 4413.376 113.959
5249.343 4413.219 113.949
5249.409 4413.152 113.932
5249.269 4413.320 113.946
5249.118 4413.509 113.962
5249.587 4413.028 113.934
5248.993 4413.673 113.974
5249.354 4413.303 113.934
5249.541 4413.111 113.929
5249.101 4413.593 113.958
5249.287 4413.401 113.952
5248.980 4413.755 113.977
5249.222 4413.505 113.950
5249.478 4413.242 113.926
5249.656 4413.092 113.919
5249.377 4413.408 113.937
5249.004 4413.834 113.980
5249.123 4413.711 113.967
5249.243 4413.625 113.955
5249.370 4413.493 113.943
5249.476 4413.382 113.929
5249.648 4413.202 113.922
5249.354 4413.577 113.946
5249.454 4413.471 113.932
5249.570 4413.349 113.919
5249.154 4413.824 113.978
5249.249 4413.724 113.962
5249.065 4413.949 113.989
5249.470 4413.560 113.934
5249.168 4413.921 113.979
5249.405 4413.668 113.952
5249.614 4413.447 113.924
5249.291 4413.821 113.968
5249.373 4413.808 113.958
5249.465 4413.739 113.941
5249.301 4413.956 113.956
5249.480 4413.832 113.928
5249.583 4413.794 113.922
5249.658 4413.821 113.913
5247.178 4414.131 114.063
5248.048 4413.956 114.034
5248.021 4414.049 114.029
5248.168 4413.986 114.025
5247.912 4414.267 114.054
5247.988 4414.230 114.042
5248.305 4413.954 114.018
5248.238 4414.052 114.014
5248.089 4414.242 114.035
5248.461 4413.908 114.014
5247.390 4415.010 114.089
5247.721 4414.678 114.085
5247.939 4414.459 114.049
5248.230 4414.167 114.019
5248.179 4414.254 114.047
5248.313 4414.119 114.032
5248.420 4414.011 114.015
5248.110 4414.362 114.040
5247.887 4414.620 114.072
5248.019 4414.487 114.056
5248.533 4413.967 114.020
5247.502 4415.053 114.104
5248.208 4414.336 114.049
5247.463 4415.134 114.101
5248.131 4414.454 114.044
5248.459 4414.119 114.019
5248.630 4413.945 114.008
5247.685 4414.938 114.094
5247.961 4414.656 114.061
5247.804 4414.854 114.083
5248.211 4414.438 114.061
5247.948 4414.746 114.066
5248.152 4414.536 114.056
5248.572 4414.105 114.012
5248.713 4413.960 113.999
5247.901 4414.827 114.089
5248.438 4414.275 114.026
5248.086 4414.679 114.055
5248.689 4414.056 114.002
5247.428 4415.399 114.114
5247.622 4415.199 114.101
5248.287 4414.510 114.043
5248.558 4414.229 114.014
5248.039 4414.797 114.075
5248.356 4414.468 114.021
5248.792 4414.016 114.006
5247.787 4415.100 114.089
5248.194 4414.677 114.066
5248.272 4414.596 114.046
5248.535 4414.322 114.015
5248.905 4413.937 113.996
5247.726 4415.209 114.087
5248.654 4414.240 114.027
5248.790 4414.098 114.013
5248.402 4414.538 114.291
5248.041 4414.914 114.083
5248.114 4414.836 114.062
5248.356 4414.584 114.055
5248.499 4414.434 114.014
5247.891 4415.112 114.078
5248.313 4414.669 114.057
5248.436 4414.581 114.042
5248.662 4414.342 114.010
5247.544 4415.555 114.132
5247.846 4415.235 114.099
5247.999 4415.075 114.083
5248.178 4414.886 114.069
5248.540 4414.503 114.020
5248.927 4414.095 114.002
5247.784 4415.346 114.099
5247.944 4415.176 114.083
5248.315 4414.783 114.032
5248.619 4414.462 114.005
5247.469 4415.733 115.168
5247.590 4415.597 114.197
5247.720 4415.459 114.123
5248.123 4415.032 114.071
5248.462 4414.670 114.019
5248.863 4414.245 114.001
5247.661 4415.558 114.122
5247.923 4415.278 114.086
5248.041 4415.152 114.068
5248.310 4414.866 114.036
5248.578 4414.581 114.031
5247.608 4415.661 114.739
5247.878 4415.368 114.119
5248.228 4414.993 114.037
5248.408 4414.802 114.025
5248.736 4414.451 114.001
5247.626 4415.687 115.155
5247.653 4415.656 114.877
5247.662 4415.645 114.574
5247.641 4415.666 114.462
5247.652 4415.653 114.379
5247.654 4415.650 114.296
5247.660 4415.644 114.213
5247.793 4415.500 114.112
5248.159 4415.107 114.058
5248.658 4414.573 114.019
5247.687 4415.654 114.796
5247.707 4415.626 114.133
5248.000 4415.313 114.072
5248.841 4414.409 114.009
5247.694 4415.693 115.111
5247.704 4415.682 115.028
5247.701 4415.686 114.945
5247.719 4415.664 114.695
5247.742 4415.639 114.613
5247.741 4415.639 114.531
5247.740 4415.640 114.448
5247.739 4415.640 114.365
5247.741 4415.637 114.282
5248.137 4415.209 114.064
5248.243 4415.095 114.045
5248.412 4414.913 114.032
5248.585 4414.726 114.020
5248.805 4414.490 114.012
5247.751 4415.676 114.864
5247.761 4415.661 114.201
5247.793 4415.625 114.094
5248.742 4414.600 114.008
5247.769 4415.693 115.172
5247.779 4415.681 115.089
5247.779 4415.680 114.978
5247.780 4415.677 114.785
5248.052 4415.377 114.060
5248.401 4415.000 114.034
5247.820 4415.676 114.714
5247.819 4415.676 114.631
5247.822 4415.673 114.549
5247.824 4415.670 114.467
5247.820 4415.674 114.384
5247.816 4415.677 114.301
5247.875 4415.612 114.085
5248.187 4415.273 114.053
5248.564 4414.863 114.031
5247.840 4415.698 114.910
5247.830 4415.705 114.219
5247.846 4415.687 114.138
5248.777 4414.673 114.100
5248.824 4414.621 114.026
5247.851 4415.726 115.163
5247.847 4415.729 115.080
5247.863 4415.711 114.997
5247.864 4415.708 114.832
5247.983 4415.573 114.124
5248.183 4415.354 114.057
5248.310 4415.215 114.040
5248.477 4415.034 114.028
5248.677 4414.815 114.018
5247.890 4415.726 114.731
5247.884 4415.731 114.648
5247.880 4415.734 114.566
5247.875 4415.739 114.483
5247.871 4415.744 114.400
5247.884 4415.728 114.318
5247.925 4415.683 114.238
5247.948 4415.656 114.075
5248.042 4415.553 114.054
5248.258 4415.316 114.045
5248.386 4415.177 114.028
5247.908 4415.750 114.925
5247.899 4415.754 114.208
5247.898 4415.755 114.125
5248.656 4414.922 114.022
5247.917 4415.776 115.171
5247.922 4415.770 115.088
5247.919 4415.773 115.006
5247.916 4415.775 114.840
5248.489 4415.138 114.032
5248.605 4415.010 114.015
5247.954 4415.776 114.758
5247.936 4415.795 114.675
5247.939 4415.791 114.592
5247.948 4415.780 114.510
5247.951 4415.777 114.428
5247.945 4415.782 114.345
5248.070 4415.643 114.106
5248.110 4415.598 114.053
5248.308 4415.379 114.042
5248.755 4414.885 114.026
5247.969 4415.804 114.946
5247.962 4415.806 114.257
5247.968 4415.799 114.175
5248.456 4415.258 114.021
5247.961 4415.851 115.165
5247.966 4415.845 115.082
5247.987 4415.821 114.862
5248.068 4415.725 114.151
5248.030 4415.766 114.066
5248.569 4415.167 114.027
5247.997 4415.856 115.009
5247.986 4415.868 114.789
5247.991 4415.861 114.706
5248.007 4415.842 114.624
5248.009 4415.840 114.541
5248.012 4415.836 114.459
5248.002 4415.846 114.376
5248.218 4415.604 114.115
5248.117 4415.716 114.080
5248.281 4415.533 114.065
5248.338 4415.469 114.043
5248.442 4415.354 114.025
5248.016 4415.873 114.242
5248.072 4415.811 114.219
5248.193 4415.675 114.171
5248.039 4415.846 114.134
5248.723 4415.081 113.999
5248.593 4415.258 114.013
5248.139 4415.810 114.119
5248.322 4415.604 114.051
5248.693 4415.187 114.001
5248.152 4415.842 114.228
5248.472 4415.480 114.034
5248.173 4415.855 114.053
5248.327 4415.726 114.037
5248.652 4415.357 114.009
5248.550 4415.513 114.020
5248.422 4415.690 114.035
5248.308 4415.862 114.033
5248.496 4415.647 114.020
5248.409 4415.828 114.055
5248.575 4415.638 114.042
5248.385 4415.900 114.025
5248.543 4415.759 114.030
5248.501 4415.840 114.020
5248.636 4415.683 114.004
5248.574 4415.928 114.030
5248.630 4413.836 114.006
5248.917 4413.547 113.980
5248.857 4413.677 113.978
5248.799 4413.773 113.997
5248.780 4413.855 114.006
5248.901 4413.768 113.990
5249.020 4414.078 113.990
5248.940 4414.195 114.011
5249.164 4414.032 113.962
5248.906 4414.339 113.989
5249.046 4414.189 113.976
5249.155 4414.154 113.968
5248.930 4414.427 113.976
5249.266 4414.063 113.956
5249.119 4414.260 113.976
5249.025 4414.401 113.968
5248.954 4414.512 113.991
5249.107 4414.386 113.960
5249.281 4414.196 113.952
5248.945 4414.604 113.994
5248.924 4414.698 113.989
5248.879 4414.789 114.005
5249.026 4414.626 113.966
5249.092 4414.588 114.248
5249.005 4414.726 113.968
5248.880 4414.905 113.986
5249.075 4414.688 113.953
5248.981 4414.863 113.974
5249.110 4414.761 113.958
5249.171 4414.692 113.939
5248.773 4415.220 113.994
5248.960 4415.008 113.984
5249.020 4414.940 113.963
5249.411 4414.535 113.918
5249.039 4415.027 113.961
5249.157 4414.892 113.947
5248.793 4415.352 113.988
5248.873 4415.377 113.978
5249.359 4414.846 113.913
5248.693 4415.744 114.003
5248.782 4415.726 113.991
5249.142 4415.335 113.940
5248.818 4415.812 113.993
5249.124 4415.449 113.941
5248.985 4415.649 113.953
5249.707 4414.832 113.898
5249.088 4415.863 113.952
5250.065 4414.984 113.859
5250.621 4414.366 113.962
5250.337 4414.719 113.860
5250.158 4415.029 113.841
5250.042 4415.255 113.908
5250.113 4415.205 113.862
5250.161 4415.346 113.873
5250.257 4415.262 113.861
5250.311 4416.080 113.879
5250.472 4416.074 113.925
5250.597 4415.979 113.840
5250.558 4416.082 113.841
5246.456 4415.791 114.187
5247.046 4415.955 114.181
5248.004 4415.892 114.933
5248.017 4415.911 115.153
5248.023 4415.903 115.070
5248.007 4415.918 114.573
5248.011 4415.913 114.490
5248.018 4415.953 114.996
5248.031 4415.937 114.857
5248.041 4415.925 114.775
5248.026 4415.941 114.692
5248.023 4415.943 114.415
5248.009 4415.958 114.331
5248.005 4415.961 114.248
5248.025 4415.938 114.166
5248.024 4415.994 115.161
5248.020 4415.999 115.079
5248.017 4416.000 114.912
5248.030 4416.023 114.818
5248.021 4416.031 114.735
5248.019 4416.034 114.652
5248.048 4416.000 114.570
5248.058 4415.988 114.487
5248.016 4416.034 114.152
5248.021 4416.081 115.152
5248.031 4416.069 115.041
5248.019 4416.078 114.568
5248.009 4416.089 114.484
5248.049 4416.044 114.403
5248.035 4416.058 114.319
5248.019 4416.076 114.235
5248.181 4415.933 114.101
5248.088 4416.070 114.148
5248.135 4416.017 114.096
5248.279 4415.941 114.054
5248.239 4416.024 114.070
5248.307 4416.064 114.058
5248.410 4416.074 114.033
5248.500 4416.015 114.051
5249.614 4411.945 116.070
5249.670 4411.926 116.183
5249.684 4411.913 116.027
5249.833 4411.989 116.327
5249.450 4411.917 118.380
5249.567 4411.902 118.362
5249.677 4411.956 118.435
5249.696 4411.965 118.527
5249.816 4411.885 118.323
5249.759 4411.938 118.248
5249.849 4411.942 118.264
5249.945 4411.910 118.337
5249.860 4411.991 118.339
5249.876 4411.976 118.153
5250.006 4411.940 118.255
5250.044 4411.937 118.392
5249.995 4411.984 118.339
5250.079 4411.903 118.201
5250.091 4411.951 118.117
5250.091 4411.981 118.261
5250.086 4412.017 118.404
5250.152 4411.953 118.182
5250.136 4411.994 118.345
5250.187 4411.980 118.275
5250.198 4412.026 118.194
5250.463 4412.063 118.687
5249.426 4412.063 116.352
5249.500 4412.027 116.324
5249.558 4411.973 116.140
5249.569 4412.021 116.259
5249.565 4412.086 116.198
5249.626 4412.028 116.170
5249.626 4412.028 115.992
5249.621 4412.066 116.428
5249.623 4412.064 116.315
5249.511 4412.169 116.170
5249.726 4411.999 116.195
5249.695 4412.053 116.399
5249.683 4412.099 116.677
5249.721 4412.062 116.582
5249.785 4412.000 116.441
5249.760 4412.024 116.355
5249.551 4412.222 116.266
5249.606 4412.170 116.238
5249.805 4412.017 116.685
5249.719 4412.098 116.274
5249.706 4412.138 116.837
5249.651 4412.188 116.351
5249.783 4412.096 117.013
5249.735 4412.142 116.954
5249.786 4412.092 116.834
5249.739 4412.137 116.752
5249.834 4412.045 116.538
5249.728 4412.179 116.626
5249.759 4412.150 116.510
5249.745 4412.225 116.861
5249.775 4412.195 116.699
5249.850 4412.123 116.488
5249.758 4412.211 116.389
5249.835 4412.136 116.291
5249.758 4412.246 116.997
5249.750 4412.281 116.731
5249.818 4412.214 116.631
5249.829 4412.204 116.518
5249.797 4412.268 116.797
5249.863 4412.202 116.431
5249.849 4412.215 116.343
5249.810 4412.253 116.281
5249.787 4412.309 116.870
5249.934 4412.164 116.404
5249.745 4412.349 116.291
5249.836 4412.287 116.728
5249.855 4412.303 116.355
5249.894 4412.265 116.239
5249.928 4412.292 116.866
5249.899 4412.320 116.781
5249.953 4412.266 116.439
5249.994 4412.258 116.222
5249.831 4412.455 116.989
5249.976 4412.308 116.008
5249.903 4412.410 116.846
5249.896 4412.417 116.757
5249.971 4412.342 116.411
5249.973 4412.375 116.891
5249.967 4412.382 116.802
5250.002 4412.346 116.729
5250.042 4412.304 116.280
5250.033 4412.313 116.148
5249.901 4412.480 116.906
5250.044 4412.338 116.816
5250.107 4412.274 116.673
5250.023 4412.358 116.486
5249.963 4412.417 116.337
5249.989 4412.391 116.245
5250.047 4412.332 116.062
5250.118 4412.288 116.784
5250.055 4412.350 116.372
5249.934 4412.503 116.822
5249.988 4412.448 116.500
5250.018 4412.417 116.407
5250.122 4412.313 116.284
5249.930 4412.505 116.170
5250.033 4412.401 116.005
5250.053 4412.443 116.738
5250.185 4412.309 116.410
5250.022 4412.473 116.162
5250.072 4412.457 116.098
5250.036 4412.493 116.035
5250.126 4412.438 116.674
5250.227 4412.423 116.877
5250.191 4412.459 116.727
5250.283 4412.394 117.092
5250.143 4412.572 116.925
5250.462 4412.242 116.545
5250.411 4412.451 117.057
5250.394 4412.502 117.159
5250.146 4412.761 116.957
5250.331 4412.567 116.459
5250.550 4412.433 116.573
5250.334 4412.729 117.130
5250.308 4412.757 117.022
5250.376 4412.684 116.920
5250.449 4412.702 117.149
5250.573 4412.565 116.333
5250.283 4412.953 117.199
5250.616 4412.591 116.189
5250.602 4412.605 116.104
5250.604 4412.701 117.137
5250.414 4412.937 117.090
5250.460 4412.922 117.004
5250.601 4412.861 116.031
5250.623 4412.876 117.116
5247.487 4415.723 117.158
5247.460 4415.747 116.064
5247.456 4415.749 115.448
5247.511 4415.733 116.739
5247.502 4415.737 115.647
5247.574 4415.706 116.353
5247.601 4415.676 115.988
5247.597 4415.679 115.765
5247.545 4415.733 115.573
5247.626 4415.696 117.218
5247.616 4415.705 116.715
5247.634 4415.684 116.183
5247.637 4415.680 116.099
5247.624 4415.691 115.489
5247.623 4415.692 115.406
5247.617 4415.698 115.322
5247.661 4415.688 115.933
5247.662 4415.687 115.821
5247.654 4415.691 115.240
5247.703 4415.693 117.194
5247.702 4415.695 116.943
5247.693 4415.703 116.777
5247.667 4415.729 116.305
5247.704 4415.689 116.052
5247.701 4415.690 115.747
5247.750 4415.689 117.054
5247.719 4415.721 116.556
5247.744 4415.692 116.136
5247.727 4415.709 115.888
5247.727 4415.708 115.667
5247.710 4415.725 115.585
5247.715 4415.719 115.501
5247.717 4415.717 115.418
5247.725 4415.708 115.335
5247.770 4415.701 117.141
5247.749 4415.723 116.865
5247.740 4415.730 116.253
5247.746 4415.722 115.975
5247.750 4415.716 115.809
5247.741 4415.723 115.255
5247.795 4415.716 116.985
5247.770 4415.741 116.738
5247.762 4415.750 116.627
5247.788 4415.720 116.068
5247.820 4415.732 117.210
5247.793 4415.759 116.544
5247.794 4415.757 116.461
5247.803 4415.747 116.182
5247.813 4415.735 115.932
5247.802 4415.746 115.739
5247.804 4415.744 115.656
5247.806 4415.741 115.573
5247.801 4415.745 115.490
5247.807 4415.738 115.407
5247.817 4415.727 115.324
5247.849 4415.736 117.129
5247.833 4415.753 116.909
5247.827 4415.760 116.825
5247.832 4415.750 115.853
5247.845 4415.732 115.245
5247.852 4415.778 116.696
5247.845 4415.785 116.614
5247.838 4415.792 116.281
5247.848 4415.780 116.114
5247.846 4415.782 116.031
5247.887 4415.785 117.225
5247.873 4415.798 116.529
5247.873 4415.798 116.446
5247.879 4415.790 116.196
5247.879 4415.789 115.946
5247.888 4415.778 115.780
5247.868 4415.800 115.698
5247.868 4415.799 115.615
5247.870 4415.797 115.532
5247.871 4415.794 115.449
5247.896 4415.766 115.366
5247.904 4415.800 116.916
5247.895 4415.810 116.833
5247.898 4415.801 115.862
5247.908 4415.787 115.282
5247.940 4415.803 117.137
5247.922 4415.823 117.001
5247.922 4415.822 116.750
5247.912 4415.833 116.668
5247.904 4415.840 116.308
5247.917 4415.826 116.112
5247.929 4415.812 116.028
5247.935 4415.851 116.580
5247.953 4415.828 115.940
5247.945 4415.835 115.803
5247.938 4415.843 115.721
5247.933 4415.849 115.638
5247.931 4415.850 115.444
5247.951 4415.827 115.361
5247.957 4415.856 115.276
5248.443 4411.932 117.821
5248.643 4411.913 117.842
5248.595 4411.985 117.505
5248.997 4411.907 117.538
5249.168 4412.024 118.692
5249.155 4412.129 118.694
5249.021 4412.667 118.144
5249.047 4412.740 118.229
5249.313 4411.952 118.659
5249.370 4411.934 118.418
5249.263 4412.088 118.741
5249.321 4412.035 118.628
5249.400 4412.029 118.598
5249.277 4412.170 118.754
5249.333 4412.118 118.712
5249.521 4411.944 118.422
5249.502 4411.995 118.576
5249.400 4412.090 118.489
5249.449 4412.076 118.715
5249.491 4412.063 118.637
5249.445 4412.106 118.581
5249.619 4411.977 118.492
5249.408 4412.173 118.507
5249.580 4412.047 118.673
5249.603 4412.025 118.573
5249.501 4412.148 118.680
5249.601 4412.055 118.487
5249.589 4412.099 118.762
5249.568 4412.148 118.633
5249.673 4412.050 118.531
5249.478 4412.294 118.842
5249.567 4412.209 118.790
5249.635 4412.145 118.534
5249.405 4412.398 119.161
5249.467 4412.339 118.947
5249.606 4412.207 118.713
5249.738 4412.082 118.578
5249.572 4412.266 118.847
5249.676 4412.167 118.789
5249.554 4412.315 118.913
5249.703 4412.173 118.700
5249.556 4412.313 118.676
5249.636 4412.269 118.778
5249.703 4412.206 118.616
5249.758 4412.152 118.529
5249.516 4412.412 118.895
5249.572 4412.358 118.805
5249.673 4412.260 118.678
5249.891 4412.051 118.197
5249.363 4412.593 119.201
5249.639 4412.327 118.843
5249.660 4412.308 118.554
5249.718 4412.285 118.801
5249.754 4412.250 118.695
5249.790 4412.216 118.591
5249.611 4412.417 118.912
5249.734 4412.297 118.588
5249.724 4412.339 119.001
5250.021 4412.050 118.440
5250.015 4412.057 118.305
5249.814 4412.282 119.000
5249.664 4412.430 119.006
5249.697 4412.397 118.923
5249.813 4412.284 118.743
5249.750 4412.345 118.693
5249.810 4412.287 118.627
5249.732 4412.389 118.842
5249.965 4412.162 118.328
5249.581 4412.575 119.244
5249.759 4412.400 119.061
5249.672 4412.485 118.877
5249.474 4412.681 117.655
5249.630 4412.562 119.165
5249.688 4412.503 119.096
5249.875 4412.320 118.936
5249.829 4412.366 118.670
5250.104 4412.095 118.422
5250.149 4412.051 118.273
5249.609 4412.641 119.142
5249.781 4412.471 119.010
5249.780 4412.472 118.891
5249.882 4412.371 118.834
5249.825 4412.428 118.829
5250.054 4412.201 118.729
5249.974 4412.280 118.732
5249.914 4412.339 118.729
5250.039 4412.216 118.642
5249.964 4412.290 118.644
5250.077 4412.179 118.515
5249.912 4412.342 118.497
5249.125 4413.122 118.689
5249.602 4412.682 119.252
5249.182 4413.099 119.254
5249.853 4412.433 118.994
5250.172 4412.116 118.336
5250.110 4412.178 118.240
5249.724 4412.589 119.167
5250.057 4412.257 118.953
5249.918 4412.396 118.955
5250.017 4412.297 118.873
5250.170 4412.146 118.183
5250.101 4412.249 118.860
5250.220 4412.129 118.772
5250.294 4412.055 118.725
5249.633 4412.750 119.222
5250.187 4412.195 118.976
5250.313 4412.069 118.590
5250.254 4412.152 118.956
5250.024 4412.382 118.944
5250.119 4412.318 118.946
5249.918 4412.520 118.922
5250.049 4412.420 118.812
5250.339 4412.128 118.307
5250.088 4412.444 118.931
5250.404 4412.123 118.730
5250.132 4412.521 118.975
5250.470 4412.174 118.718
5250.374 4412.273 118.365
5250.436 4412.302 118.960
5250.488 4412.307 118.819
5250.548 4412.280 118.876
5250.354 4412.544 119.198
5250.541 4412.381 119.183
5250.600 4412.418 119.137
5250.589 4412.430 118.820
5250.491 4412.534 117.249
5250.573 4412.568 118.700
5250.150 4413.023 117.438
5250.272 4412.891 117.389
5250.423 4412.766 117.369
5250.271 4412.930 117.310
5250.410 4412.817 118.849
5250.219 4413.051 118.900
5250.621 4412.615 117.315
5250.622 4412.647 118.705
5250.609 4412.695 117.582
